# 3D point list with one line of data per point:
#   POINT3D_ID, X, Y, Z, R, G, B, ERROR, TRACK[] as (IMAGE_ID, POINT2D_IDX)
1 -153.871054 -120.801428 78.829849 211 148 158 0.0
2 59.886987 55.944406 -3.943271 172 127 11 0.0
3 -155.474993 108.886482 8.741243 186 39 115 0.0
4 239.783376 4.094167 65.468836 86 21 154 0.0
5 12.998568 -26.894355 -108.549483 58 152 51 0.0
6 -23.991926 160.355558 89.769434 96 104 177 0.0
7 59.151915 104.374928 68.244181 172 157 178 0.0
8 -17.026349 -34.744052 49.444227 175 90 34 0.0
9 -104.480258 140.223968 34.665096 174 165 92 0.0
10 -112.296565 -158.472919 2.938818 72 51 197 0.0
11 0.111763 20.624814 -170.101967 226 7 235 0.0
12 69.519773 -45.174969 134.691598 241 196 55 0.0
13 -151.189359 -79.604478 97.929780 168 114 130 0.0
14 133.912334 -17.031518 128.751828 106 196 185 0.0
15 -54.039470 -239.019160 -0.746046 30 108 116 0.0
16 -142.680627 65.750657 -2.036233 218 228 85 0.0
17 10.806965 49.678290 -11.703689 155 71 231 0.0
18 -162.209170 -15.095729 -76.580036 227 12 68 0.0
19 -26.317646 113.021952 -222.663503 35 193 35 0.0
20 -160.361171 -102.345533 -89.453848 140 15 122 0.0
21 177.289958 56.698843 42.028413 31 14 59 0.0
22 30.594855 199.030716 -25.414269 89 139 81 0.0
23 95.132664 -23.364044 -26.030001 43 96 32 0.0
24 -13.595184 191.263539 118.089270 57 87 251 0.0
25 -40.903863 -70.858883 -30.085255 26 133 16 0.0
26 36.557692 136.958998 5.175253 85 184 163 0.0
27 -57.340460 -138.436900 -151.662094 186 90 180 0.0
28 23.913965 147.480013 -170.166766 234 148 194 0.0
29 -88.295776 -76.956756 -96.016497 14 147 140 0.0
30 -53.002896 -123.514120 194.425262 100 228 180 0.0
31 -32.571849 -8.768709 -15.683912 25 35 168 0.0
32 68.394928 -213.527410 -293.788773 198 146 39 0.0
33 -81.056156 89.886241 48.480907 9 170 116 0.0
34 14.798957 130.695804 32.308531 213 177 108 0.0
35 -13.663309 -100.977954 -84.390038 146 136 165 0.0
36 4.375222 30.297561 171.445606 227 117 76 0.0
37 39.142992 32.241261 -70.040161 89 80 88 0.0
38 -30.134590 -143.941161 -10.386332 87 228 191 0.0
39 2.972398 110.465688 64.182571 129 156 28 0.0
40 -52.624276 111.515391 74.074038 224 161 254 0.0
41 -100.965518 -33.561228 -4.891434 240 190 90 0.0
42 93.562005 118.710908 -180.472431 230 16 23 0.0
43 28.452198 2.950581 79.232487 105 105 117 0.0
44 117.128632 95.548011 34.222644 144 161 160 0.0
45 71.751579 22.180553 -98.775808 198 236 76 0.0
46 7.031021 44.091991 -28.529973 126 197 248 0.0
47 -32.223070 -53.650969 -136.190794 127 235 227 0.0
48 -28.865927 198.929367 15.633992 118 185 150 0.0
49 40.121049 -69.543750 -8.196088 215 147 74 0.0
50 80.615855 113.899835 64.657169 24 199 148 0.0
51 -96.824737 73.074243 -21.720845 123 213 139 0.0
52 -29.376430 -200.191286 -42.112733 134 78 200 0.0
53 47.540904 51.515062 -50.233837 33 9 61 0.0
54 13.084364 47.133053 -135.353170 78 171 100 0.0
55 89.656268 85.805956 10.993168 178 52 40 0.0
56 -4.295141 142.358482 -113.885828 226 4 176 0.0
57 -77.381842 -7.270631 -119.408199 167 107 110 0.0
58 -47.570594 23.441620 -23.872314 36 17 127 0.0
59 -7.539998 -115.477434 80.430787 211 104 56 0.0
60 40.266550 -94.444105 -102.608075 99 16 216 0.0
61 -37.701132 2.500517 71.161434 88 231 56 0.0
62 5.657311 36.230121 -0.287639 210 247 129 0.0
63 -107.663163 -40.344869 83.571943 201 238 209 0.0
64 -21.899028 -8.677983 87.810774 224 187 197 0.0
65 -19.002032 -12.212358 39.770204 152 50 167 0.0
66 -42.971226 -162.301941 -60.639150 64 117 86 0.0
67 -64.344582 -80.998008 70.274153 0 226 171 0.0
68 104.404007 166.255635 64.835926 233 242 31 0.0
69 87.745125 -61.989307 82.382397 148 26 236 0.0
70 -16.684846 0.333729 -133.871252 24 20 208 0.0
71 75.572612 108.847245 -139.009824 53 178 169 0.0
72 67.446529 -12.190838 39.402296 4 215 132 0.0
73 -74.663122 -23.973423 -11.648856 32 105 241 0.0
74 -11.369220 -83.927440 -34.931907 9 220 208 0.0
75 197.271362 92.272327 82.605591 104 0 97 0.0
76 24.175332 60.171437 89.809421 173 25 33 0.0
77 31.100567 64.685065 112.177836 240 189 137 0.0
78 -133.459879 114.481701 39.994547 179 13 224 0.0
79 71.424864 -58.951992 -72.160072 40 10 12 0.0
80 23.450800 -97.972440 47.398583 59 95 23 0.0
81 94.781055 277.610785 193.452895 245 189 174 0.0
82 -43.517693 -78.970681 74.755436 120 138 69 0.0
83 -148.904162 8.211750 -52.698365 132 154 186 0.0
84 -202.660245 209.996086 -104.058202 102 4 108 0.0
85 24.496818 -198.543708 1.730216 132 132 116 0.0
86 -133.916411 -47.661481 -173.559314 132 45 243 0.0
87 -14.342033 -126.000786 -5.122686 178 157 91 0.0
88 -12.531438 147.226346 -196.059941 74 217 188 0.0
89 -126.210953 -136.723526 -7.636547 60 242 139 0.0
90 26.019673 135.066680 79.160201 139 246 56 0.0
91 13.531979 180.263824 -22.230052 79 127 12 0.0
92 -63.334240 -38.574201 95.736616 210 145 129 0.0
93 -125.840133 -165.768817 58.791682 221 133 46 0.0
94 -101.357951 -58.539819 40.064374 221 240 206 0.0
95 -58.170697 17.654519 272.119266 187 170 206 0.0
96 66.305936 -15.154970 -11.930627 190 35 148 0.0
97 117.764948 72.895302 45.359064 135 241 110 0.0
98 -152.860832 -209.111819 10.625719 226 43 80 0.0
99 -11.839761 -30.775701 -55.661516 205 31 247 0.0
100 -48.095138 94.846909 112.111299 120 102 30 0.0
